ply
format ascii 1.0
element vertex 1213
property float x
property float y
property float z
property uchar red
property uchar green
property uchar blue
end_header
1.125000 1.460938 -5.625000 79 114 16
1.140625 1.460938 -5.625000 86 122 20
1.156250 1.460938 -5.625000 91 120 36
1.171875 1.460938 -5.625000 92 121 35
1.187500 1.460938 -5.625000 90 121 37
1.203125 1.460938 -5.625000 90 123 36
1.218750 1.460938 -5.625000 93 127 30
1.234375 1.460938 -5.625000 90 125 36
1.250000 1.460938 -5.625000 87 123 30
1.265625 1.460938 -5.625000 81 113 32
1.270087 1.448209 -5.575992 85 102 29
1.284333 1.446808 -5.570600 123 119 41
1.301065 1.448209 -5.575992 162 147 84
1.328125 1.460938 -5.625000 166 148 94
1.343750 1.460938 -5.625000 162 145 96
1.359375 1.460938 -5.625000 166 147 101
1.375000 1.460938 -5.625000 167 148 104
1.390625 1.460938 -5.625000 171 147 109
1.406250 1.460938 -5.625000 170 147 110
1.421875 1.460938 -5.625000 166 146 101
1.437500 1.460938 -5.625000 166 141 111
1.453125 1.460938 -5.625000 164 147 104
1.468750 1.460938 -5.625000 163 150 99
1.484375 1.460938 -5.625000 166 150 96
1.500000 1.460938 -5.625000 164 151 98
1.515625 1.460938 -5.625000 160 150 97
1.342657 0.951049 -3.661793 186 169 131
1.351969 0.950445 -3.659466 188 168 137
1.362135 0.950445 -3.659466 188 161 133
1.372300 0.950445 -3.659466 187 161 127
1.383344 0.951049 -3.661793 187 170 124
2.107785 1.279726 -4.927288 109 132 73
1.653061 0.954082 -3.673469 135 137 81
1.648546 0.945638 -3.640961 160 147 84
1.658660 0.945638 -3.640961 161 142 81
1.669829 0.946237 -3.643264 162 146 94
1.690643 0.952260 -3.666455 162 143 92
2.536585 1.403377 -5.403377 157 142 79
2.544434 1.399439 -5.388213 155 139 82
2.559401 1.399439 -5.388213 156 133 96
2.571963 1.398131 -5.383178 148 123 88
2.582090 1.395522 -5.373134 144 122 72
2.587361 1.390335 -5.353160 136 114 66
2.590194 1.383904 -5.328400 106 79 42
2.597786 1.380074 -5.313653 100 72 21
2.607735 1.377532 -5.303867 165 148 81
2.620055 1.376265 -5.298988 191 172 127
2.632353 1.375000 -5.294117 180 156 118
2.644628 1.373737 -5.289256 171 143 103
2.654445 1.371219 -5.279560 170 140 101
2.664227 1.368710 -5.269899 170 147 95
2.673973 1.366210 -5.260274 177 160 114
2.681239 1.362477 -5.245902 183 161 123
2.695811 1.362477 -5.245902 184 163 111
2.725275 1.369963 -5.274725 184 166 115
2.744954 1.372477 -5.284404 180 163 118
2.762167 1.373737 -5.289256 181 168 113
2.776860 1.373737 -5.289256 187 171 125
2.791552 1.373737 -5.289256 184 169 123
2.803670 1.372477 -5.284404 178 172 113
2.813187 1.369963 -5.274725 184 170 130
2.825252 1.368710 -5.269899 183 165 131
2.826958 1.362477 -5.245902 185 168 124
2.838944 1.361238 -5.241128 187 171 129
2.858706 1.363719 -5.250684 190 169 131
2.881170 1.367459 -5.265082 188 169 130
2.906422 1.372477 -5.284404 186 168 127
2.921101 1.372477 -5.284404 196 177 136
2.935780 1.372477 -5.284404 165 172 112
2.950459 1.372477 -5.284404 139 165 86
2.962420 1.371219 -5.279560 140 168 83
2.977085 1.371219 -5.279560 145 173 86
3.005525 1.377532 -5.303867 148 170 89
3.039852 1.386469 -5.338276 62 80 39
3.063197 1.390335 -5.353160 45 61 20
3.072356 1.387755 -5.343228 45 63 12
3.087198 1.387755 -5.343228 125 154 54
3.244037 1.372477 -5.284404 104 154 73
3.255729 1.371219 -5.279560 106 141 68
3.264410 1.368710 -5.269899 107 97 36
3.267092 1.363719 -5.250684 160 140 74
-2.322581 0.954839 -3.716129 129 172 91
-2.316742 0.956690 -3.723336 144 180 88
-2.310881 0.958549 -3.730570 154 187 88
-2.297542 0.957309 -3.725744 167 199 89
-2.290155 0.958549 -3.730570 166 194 90
-2.290176 0.962915 -3.747560 155 188 86
-2.406184 1.040056 -4.047786 152 185 71
-2.383217 1.034965 -4.027972 141 184 66
-2.332875 1.017882 -3.961486 140 184 72
-2.181344 0.965427 -3.757339 89 132 61
-2.163849 0.962289 -3.745124 97 154 79
-2.152047 0.961663 -3.742690 96 154 74
-2.113402 0.953608 -3.711340 104 163 80
-2.041276 0.925578 -3.602251 106 166 80
-2.011146 0.916409 -3.566563 105 170 90
-2.001238 0.916409 -3.566563 99 169 87
-1.823256 0.860465 -3.348837 212 86 30
-1.803468 0.855491 -3.329480 213 111 32
-1.783908 0.850575 -3.310345 215 131 25
-1.760547 0.843786 -3.283922 211 115 17
-2.132530 1.114458 -4.337349 234 57 122
-2.099926 1.103654 -4.295302 237 51 139
-2.052786 1.085044 -4.222874 238 52 131
-2.021786 1.074800 -4.183007 241 54 127
-1.994236 1.066282 -4.149856 247 52 128
-1.981282 1.065515 -4.146868 245 48 136
-1.948718 1.054131 -4.102564 242 46 138
-1.896213 1.037868 -4.039271 229 44 125
-1.860208 1.024221 -3.986159 221 39 122
-1.817687 1.006803 -3.918367 192 32 103
-1.795808 1.000676 -3.894523 167 45 97
-1.777778 0.996633 -3.878788 142 85 106
-2.258176 1.273666 -4.956971 131 145 135
-2.148410 1.307420 -5.088339 124 188 78
-2.106364 1.290323 -5.021796 129 189 71
-2.092415 1.290323 -5.021796 131 190 77
-1.426840 1.281385 -4.987013 71 129 65
-1.411765 1.280277 -4.982699 60 111 50
-1.401561 1.283608 -4.995664 76 135 76
-1.391304 1.286957 -5.008696 80 137 71
-1.497164 1.398866 -5.444234 84 136 71
-1.482042 1.398866 -5.444234 84 137 75
-1.326352 1.291448 -5.026178 83 136 63
-1.305556 1.284722 -5.000000 77 137 67
-1.291667 1.284722 -5.000000 74 133 65
-1.333333 1.340580 -5.217391 69 129 67
-1.318841 1.340580 -5.217391 59 118 58
-1.299639 1.335740 -5.198556 82 139 62
-1.217094 1.264957 -4.923077 132 182 72
-1.265049 1.329739 -5.175202 130 177 60
-1.093004 1.218107 -4.740741 108 135 86
-1.069275 1.206194 -4.694376 137 168 94
-1.054516 1.204231 -4.686737 144 185 103
-1.040650 1.203252 -4.682927 150 193 96
-1.027642 1.203252 -4.682927 162 202 85
-1.013810 1.202275 -4.679122 162 197 83
-1.000000 1.201299 -4.675324 158 194 82
-0.985413 1.199352 -4.667747 155 194 79
-0.971660 1.198381 -4.663968 152 194 84
-0.957929 1.197411 -4.660194 152 196 87
-0.948052 1.201299 -4.675324 140 175 93
-0.630631 0.833333 -3.243243 89 128 105
-0.621622 0.833333 -3.243243 81 106 97
-0.612613 0.833333 -3.243243 91 111 112
-0.603604 0.833333 -3.243243 142 155 172
-0.594595 0.833333 -3.243243 174 178 203
-0.721251 1.361546 -5.298988 130 153 188
-0.699454 1.347905 -5.245902 131 132 175
-0.683636 1.345455 -5.236363 120 134 132
-0.666063 1.339367 -5.212670 85 132 71
-0.651584 1.339367 -5.212670 55 92 17
-0.631957 1.328546 -5.170557 88 125 46
-0.617040 1.327354 -5.165919 118 174 81
-0.602691 1.327354 -5.165919 136 188 87
-0.588869 1.328546 -5.170557 120 161 74
-0.578139 1.336947 -5.203252 110 135 78
-0.563686 1.336947 -5.203252 119 145 83
-0.549232 1.336947 -5.203252 114 157 68
-0.533814 1.334536 -5.193868 94 135 61
-0.519387 1.334536 -5.193868 96 124 73
-0.504959 1.334536 -5.193868 113 148 70
-0.490975 1.335740 -5.198556 134 178 82
-0.476965 1.336947 -5.203252 161 198 97
-0.465878 1.346679 -5.241128 168 198 92
-0.451319 1.346679 -5.241128 174 201 90
-0.436761 1.346679 -5.241128 174 203 96
-0.421818 1.345455 -5.236363 164 196 96
-0.319722 1.285838 -5.004344 188 208 108
0.296296 1.015089 -3.950617 201 183 162
0.282650 0.933754 -3.634069 199 181 171
0.292191 0.931990 -3.627204 180 167 159
0.301887 0.930818 -3.622642 119 134 68
0.311754 0.930233 -3.620365 115 145 39
0.321406 0.929065 -3.615819 102 142 41
0.331867 0.930233 -3.620365 94 141 35
0.343434 0.934343 -3.636364 109 146 46
0.356234 0.941476 -3.664122 119 148 48
0.434487 1.004752 -3.910387 159 142 95
0.446562 1.007488 -3.921035 165 143 105
0.416357 0.916976 -3.568773 167 143 96
0.426534 0.917545 -3.570986 166 147 93
0.436183 0.916976 -3.568773 169 153 104
0.489796 1.006803 -3.918367 169 151 99
0.718750 1.445312 -5.625000 171 151 106
1.062500 1.445312 -5.625000 169 151 87
1.078125 1.445312 -5.625000 98 108 37
1.093750 1.445312 -5.625000 73 106 12
1.109375 1.445312 -5.625000 79 114 21
1.125000 1.445312 -5.625000 82 117 23
1.140625 1.445312 -5.625000 86 118 28
1.156250 1.445312 -5.625000 90 122 37
1.171875 1.445312 -5.625000 92 124 30
1.187500 1.445312 -5.625000 93 124 32
1.203125 1.445312 -5.625000 89 123 30
1.218750 1.445312 -5.625000 87 123 31
1.234375 1.445312 -5.625000 86 120 37
1.250000 1.445312 -5.625000 89 123 33
1.265625 1.445312 -5.625000 80 110 30
1.270087 1.432720 -5.575992 88 113 28
1.278152 1.424447 -5.543792 96 116 23
1.298551 1.429952 -5.565217 133 130 55
1.315280 1.431335 -5.570600 166 148 93
1.343750 1.445312 -5.625000 163 145 101
1.359375 1.445312 -5.625000 161 144 104
1.375000 1.445312 -5.625000 165 146 105
1.390625 1.445312 -5.625000 170 150 105
1.406250 1.445312 -5.625000 169 150 116
1.421875 1.445312 -5.625000 168 147 109
1.437500 1.445312 -5.625000 169 148 104
1.453125 1.445312 -5.625000 166 146 105
1.468750 1.445312 -5.625000 165 147 105
1.351969 0.940280 -3.659466 185 169 125
1.362135 0.940280 -3.659466 190 166 139
1.372300 0.940280 -3.659466 191 162 142
1.382465 0.940280 -3.659466 182 163 124
1.393516 0.940877 -3.661793 190 168 127
1.673338 0.955455 -3.718528 165 148 93
1.907514 1.069364 -4.161849 162 147 90
1.919075 1.069364 -4.161849 163 146 96
1.930636 1.069364 -4.161849 170 149 112
2.514499 1.384471 -5.388213 164 143 106
2.536585 1.388368 -5.403377 161 143 94
2.570889 1.398866 -5.444234 158 140 89
2.588458 1.400189 -5.449385 153 134 88
2.591337 1.393597 -5.423729 149 130 96
2.589336 1.384471 -5.388213 145 121 83
2.594594 1.379310 -5.368127 132 115 59
2.590194 1.369103 -5.328400 124 101 66
2.597786 1.365314 -5.313653 101 69 44
2.607735 1.362799 -5.303867 114 87 35
2.617647 1.360294 -5.294117 178 161 93
2.632353 1.360294 -5.294117 184 163 104
2.644628 1.359045 -5.289256 172 147 100
2.659321 1.359045 -5.289256 172 151 108
2.669111 1.356554 -5.279560 177 152 112
2.678865 1.354071 -5.269899 177 159 106
2.681239 1.347905 -5.245902 177 162 110
2.693358 1.346679 -5.241128 180 163 109
2.710382 1.347905 -5.245902 180 163 108
2.744954 1.357798 -5.284404 180 167 113
2.762167 1.359045 -5.289256 179 164 116
2.776860 1.359045 -5.289256 184 167 122
2.791552 1.359045 -5.289256 184 170 128
2.803670 1.357798 -5.284404 182 166 124
2.810613 1.354071 -5.269899 184 164 130
2.817518 1.350365 -5.255475 185 168 133
2.824386 1.346679 -5.241128 182 168 122
2.838944 1.346679 -5.241128 185 169 125
2.853503 1.346679 -5.241128 191 172 131
2.873291 1.349134 -5.250684 186 170 133
2.895795 1.352834 -5.265082 187 168 129
2.921101 1.357798 -5.284404 181 159 124
2.935780 1.357798 -5.284404 187 172 126
2.947754 1.356554 -5.279560 162 169 114
2.959707 1.355311 -5.274725 139 160 89
2.966210 1.351598 -5.260274 148 172 87
2.972678 1.347905 -5.245902 142 161 84
2.987250 1.347905 -5.245902 60 77 27
3.055351 1.365314 -5.313653 45 67 6
3.070111 1.365314 -5.313653 132 164 62
2.701619 1.141095 -4.441018 104 154 61
3.223443 1.355311 -5.274725 105 155 67
3.238095 1.355311 -5.274725 114 151 72
3.252747 1.355311 -5.274725 121 124 65
3.264410 1.354071 -5.269899 99 77 34
3.267092 1.349134 -5.250684 125 97 38
-2.322581 0.944516 -3.716129 91 152 62
-2.316742 0.946348 -3.723336 101 154 63
-2.310881 0.948187 -3.730570 110 157 71
-2.297542 0.946960 -3.725744 119 160 65
-2.290155 0.948187 -3.730570 135 173 82
-2.590140 1.077263 -4.238410 153 190 88
-2.607143 1.089286 -4.285714 156 200 83
-2.454545 1.039773 -4.090909 132 162 73
-2.417428 1.028812 -4.047786 150 185 76
-2.394406 1.023776 -4.027972 151 184 73
-2.343879 1.006878 -3.961486 147 188 63
-2.309054 0.996596 -3.921035 141 186 56
-2.295038 0.995241 -3.915704 113 151 57
-2.267206 0.987854 -3.886640 88 128 60
-2.201448 0.963792 -3.791968 98 150 91
-2.170907 0.954990 -3.757339 96 151 83
-2.160470 0.954990 -3.757339 100 153 75
-2.150033 0.954990 -3.757339 97 153 83
-2.113402 0.943299 -3.711340 101 166 96
-2.037453 0.913858 -3.595506 106 172 101
-2.008658 0.905380 -3.562152 108 172 95
-1.996294 0.904262 -3.557752 102 171 80
-1.985185 0.903704 -3.555556 92 114 37
-1.832558 0.851163 -3.348837 215 81 28
-1.812717 0.846243 -3.329480 217 82 39
-1.793103 0.841379 -3.310345 215 106 23
-1.769669 0.834664 -3.283922 215 136 16
-1.759544 0.834188 -3.282051 213 120 20
-2.120482 1.102410 -4.337349 232 56 125
-2.063375 1.078850 -4.244658 226 56 121
-2.024727 1.064727 -4.189091 208 53 105
-2.010167 1.063181 -4.183007 186 44 92
-2.643612 1.406340 -5.533141 176 48 90
-2.628242 1.406340 -5.533141 176 45 91
-2.297578 1.266436 -4.982699 124 121 119
-2.271945 1.259897 -4.956971 123 161 131
-2.269896 1.266436 -4.982699 120 183 134
-2.148410 1.293286 -5.088339 127 187 79
-2.106364 1.276373 -5.021796 131 188 69
-2.090592 1.275261 -5.017422 132 187 73
-1.411765 1.266436 -4.982699 66 117 55
-1.401561 1.269731 -4.995664 82 136 74
-1.515152 1.386364 -5.454545 79 138 69
-1.546875 1.429688 -5.625000 82 138 69
-1.531250 1.429688 -5.625000 83 139 72
-1.312391 1.277487 -5.026178 80 135 75
-1.350272 1.328494 -5.226860 79 132 65
-1.333333 1.326087 -5.217391 77 130 57
-1.318841 1.326087 -5.217391 66 121 62
-1.300813 1.322493 -5.203252 74 126 60
-1.285199 1.321300 -5.198556 128 177 71
-1.077176 1.201970 -4.729064 101 141 106
-1.056235 1.193154 -4.694376 101 143 101
-1.042345 1.192182 -4.690554 116 163 89
-1.029316 1.192182 -4.690554 140 186 86
-1.014634 1.190244 -4.682927 155 196 87
-0.998379 1.186386 -4.667747 160 195 84
-0.985413 1.186386 -4.667747 157 192 86
-0.974026 1.188312 -4.675324 159 195 94
-0.961039 1.188312 -4.675324 154 191 95
-0.721251 1.346826 -5.298988 130 153 191
-0.700730 1.335766 -5.255475 141 154 187
-0.684882 1.333333 -5.245902 105 124 121
-0.637681 1.326087 -5.217391 92 131 54
-0.622624 1.324887 -5.212670 120 168 82
-0.605951 1.320108 -5.193868 112 163 74
-0.591524 1.320108 -5.193868 104 154 78
-0.578139 1.322493 -5.203252 116 153 96
-0.563686 1.322493 -5.203252 107 134 81
-0.548242 1.320108 -5.193868 111 152 73
-0.533814 1.320108 -5.193868 83 130 53
-0.518919 1.318919 -5.189189 73 115 51
-0.504959 1.320108 -5.193868 84 121 66
-0.490090 1.318919 -5.189189 95 132 64
-0.476965 1.322493 -5.203252 112 154 62
-0.466727 1.334549 -5.250684 125 176 66
-0.452142 1.334549 -5.250684 139 185 75
-0.434783 1.326087 -5.217391 157 189 88
-0.419530 1.323689 -5.207957 173 197 102
-0.403968 1.320108 -5.193868 175 201 96
-0.318064 1.265341 -4.978393 180 197 102
-0.304235 1.265341 -4.978393 183 204 111
-0.290657 1.266436 -4.982699 174 200 107
0.296296 1.004115 -3.950617 208 188 174
0.282828 0.924242 -3.636364 195 179 167
0.292376 0.922495 -3.629490 195 179 171
0.301697 0.920176 -3.620365 136 145 83
0.311754 0.920176 -3.620365 112 141 42
0.320601 0.916719 -3.606763 103 145 41
0.330620 0.916719 -3.606763 96 139 38
0.340639 0.916719 -3.606763 110 144 46
0.356008 0.930706 -3.661793 111 147 42
0.459959 1.002053 -3.942505 165 143 94
0.470910 1.002053 -3.942505 164 149 92
0.481203 1.000684 -3.937115 163 147 91
0.494505 1.005494 -3.956044 168 150 92
0.718750 1.429688 -5.625000 171 155 102
1.062500 1.429688 -5.625000 91 99 10
1.078125 1.429688 -5.625000 82 108 23
1.093750 1.429688 -5.625000 80 113 29
1.109375 1.429688 -5.625000 82 113 33
1.125000 1.429688 -5.625000 85 117 34
1.140625 1.429688 -5.625000 89 120 34
1.156250 1.429688 -5.625000 87 122 33
1.171875 1.429688 -5.625000 85 121 27
1.187500 1.429688 -5.625000 92 124 24
1.203125 1.429688 -5.625000 89 122 33
1.218750 1.429688 -5.625000 78 122 40
1.234375 1.429688 -5.625000 82 127 44
1.250000 1.429688 -5.625000 95 123 42
1.265625 1.429688 -5.625000 85 111 30
1.278152 1.409047 -5.543792 100 126 40
1.293551 1.409047 -5.543792 98 114 31
1.315280 1.415861 -5.570600 141 132 69
1.343750 1.429688 -5.625000 163 146 99
1.359375 1.429688 -5.625000 164 141 103
1.375000 1.429688 -5.625000 164 145 102
1.390625 1.429688 -5.625000 165 149 95
1.406250 1.429688 -5.625000 170 148 104
1.421875 1.429688 -5.625000 172 151 108
1.437500 1.429688 -5.625000 170 151 104
1.453125 1.429688 -5.625000 168 149 110
1.468750 1.429688 -5.625000 165 144 106
1.362135 0.930114 -3.659466 187 166 136
1.371429 0.929524 -3.657143 187 166 144
1.381587 0.929524 -3.657143 184 164 135
1.391746 0.929524 -3.657143 189 160 122
1.402795 0.930114 -3.659466 190 165 128
1.916667 1.089286 -4.285714 170 153 98
1.879623 1.061639 -4.176940 161 147 99
1.891226 1.061639 -4.176940 162 147 101
1.902828 1.061639 -4.176940 168 149 100
1.918605 1.063954 -4.186047 169 152 101
1.930233 1.063954 -4.186047 166 151 101
1.930636 1.057804 -4.161849 165 147 101
1.939394 1.056277 -4.155844 166 146 104
1.953757 1.057804 -4.161849 162 139 102
2.603595 1.385052 -5.449385 148 125 89
2.601504 1.375940 -5.413534 138 116 74
2.594594 1.364399 -5.368127 136 116 72
2.583026 1.350554 -5.313653 137 113 75
2.590616 1.346826 -5.298988 123 96 63
2.602941 1.345588 -5.294117 95 63 37
2.617647 1.345588 -5.294117 126 99 48
2.629936 1.344353 -5.289256 180 165 93
2.644628 1.344353 -5.289256 181 163 108
2.659321 1.344353 -5.289256 180 162 117
2.669111 1.341888 -5.279560 183 157 122
2.678865 1.339433 -5.269899 181 158 118
2.676364 1.330909 -5.236363 167 152 96
2.683590 1.327289 -5.222122 173 159 101
2.698096 1.327289 -5.222122 184 159 109
2.722475 1.332120 -5.241128 181 163 105
2.762167 1.344353 -5.289256 178 165 120
2.776860 1.344353 -5.289256 181 161 122
2.788991 1.343119 -5.284404 183 169 118
2.801100 1.341888 -5.279560 184 169 123
2.808044 1.338208 -5.265082 181 165 130
2.817518 1.335766 -5.255475 184 167 130
2.821818 1.330909 -5.236363 183 169 125
2.836364 1.330909 -5.236363 186 165 126
2.850909 1.330909 -5.236363 188 171 130
2.865454 1.330909 -5.236363 186 174 134
2.874773 1.328494 -5.226860 189 171 134
2.891917 1.329700 -5.231607 185 165 130
2.927722 1.339433 -5.269899 185 165 129
2.942360 1.339433 -5.269899 189 178 131
2.951598 1.336986 -5.260274 154 167 110
2.947368 1.328494 -5.226860 147 169 93
2.959202 1.327289 -5.222122 136 157 87
2.960289 1.321300 -5.198556 55 77 26
2.701619 1.128759 -4.441018 104 155 46
3.226398 1.341888 -5.279560 125 159 76
3.241063 1.341888 -5.279560 147 140 93
3.255729 1.341888 -5.279560 147 119 83
3.267399 1.340659 -5.274725 121 93 62
3.282051 1.340659 -5.274725 100 69 29
-2.777778 1.117284 -4.444445 101 165 84
-2.765432 1.117284 -4.444445 101 161 84
-2.750964 1.116423 -4.441018 100 154 79
-2.736518 1.115562 -4.437596 95 151 75
-2.724191 1.115562 -4.437596 91 145 68
-2.713955 1.116423 -4.441018 103 152 74
-2.607143 1.077381 -4.285714 116 173 81
-2.560940 1.063142 -4.229075 124 179 79
-2.465909 1.028409 -4.090909 124 159 62
-2.435518 1.020437 -4.059196 142 174 76
-2.415730 1.016854 -4.044944 144 184 68
-2.394406 1.012587 -4.027972 145 186 67
-2.376569 1.009763 -4.016737 156 191 70
-2.309054 0.985705 -3.921035 143 177 51
-2.278003 0.977058 -3.886640 105 134 50
-2.232558 0.962126 -3.827243 96 135 73
-2.201448 0.953259 -3.791968 94 144 68
-2.182295 0.949508 -3.777049 94 147 72
-2.164706 0.946405 -3.764706 99 156 77
-2.161311 0.949508 -3.777049 103 165 83
-2.139596 0.944553 -3.757339 105 170 94
-2.041276 0.905566 -3.602251 111 170 98
-2.011146 0.896594 -3.566563 105 166 85
-1.996294 0.894379 -3.557752 96 153 72
-1.990099 0.896040 -3.564356 101 105 43
-1.814815 0.837963 -3.333333 222 87 29
-1.797235 0.834101 -3.317972 220 103 24
-1.788018 0.834101 -3.317972 215 126 30
-1.784971 0.836994 -3.329480 216 128 21
-2.718750 1.414062 -5.625000 113 92 90
-2.703125 1.414062 -5.625000 106 97 100
-2.646154 1.392308 -5.538462 106 107 99
-2.628242 1.390970 -5.533141 110 109 99
-2.575758 1.371212 -5.454545 115 106 109
-2.283737 1.252595 -4.982699 116 173 130
-2.269896 1.252595 -4.982699 113 176 129
-2.175313 1.295170 -5.152057 131 185 70
-2.104530 1.261324 -5.017422 135 187 67
-2.083333 1.256944 -5.000000 134 188 70
-1.411765 1.252595 -4.982699 78 124 64
-1.420208 1.367328 -5.439094 84 142 74
-1.350272 1.313975 -5.226860 78 132 59
-1.333333 1.311594 -5.217391 72 125 51
-1.318841 1.311594 -5.217391 67 122 67
-1.300813 1.308040 -5.203252 63 114 51
-1.285199 1.306859 -5.198556 116 165 64
-1.043195 1.180114 -4.694376 97 139 111
-1.027642 1.177236 -4.682927 93 136 90
-1.014634 1.177236 -4.682927 109 150 80
-1.001626 1.177236 -4.682927 148 180 95
-0.596906 1.317561 -5.241128 115 163 89
-0.506730 1.146477 -4.560570 118 164 86
-0.493671 1.145570 -4.556962 106 138 68
-0.481394 1.146477 -4.560570 116 142 77
-0.532853 1.303330 -5.184518 106 145 77
-0.518452 1.303330 -5.184518 68 113 55
-0.445151 1.151033 -4.578696 72 116 62
-0.431404 1.148295 -4.567803 79 123 67
-0.418715 1.148295 -4.567803 79 121 61
-0.464610 1.313975 -5.226860 90 133 56
-0.451319 1.317561 -5.241128 114 159 64
-0.434783 1.311594 -5.217391 128 172 68
-0.419530 1.309222 -5.207957 138 178 68
-0.403968 1.305681 -5.193868 153 191 79
-0.316423 1.245056 -4.952709 179 198 96
-0.304235 1.251513 -4.978393 178 202 92
0.285322 0.993141 -3.950617 87 89 133
0.296296 0.993141 -3.950617 197 180 176
0.306849 0.991781 -3.945205 197 181 167
0.291824 0.910692 -3.622642 197 181 175
0.301129 0.908406 -3.613551 160 158 103
0.310582 0.906700 -3.606763 116 146 37
0.320000 0.905000 -3.600000 106 144 46
0.329588 0.903870 -3.595506 97 138 47
0.340426 0.906133 -3.604506 102 142 43
0.351759 0.909548 -3.618090 108 142 44
0.461856 0.995189 -3.958763 158 139 90
0.472852 0.995189 -3.958763 165 143 101
0.483849 0.995189 -3.958763 166 145 96
0.497581 1.000691 -3.980650 164 146 92
0.718750 1.414062 -5.625000 167 150 100
1.062500 1.414062 -5.625000 79 105 24
1.078125 1.414062 -5.625000 90 112 32
1.093750 1.414062 -5.625000 84 111 30
1.109375 1.414062 -5.625000 82 115 37
1.125000 1.414062 -5.625000 85 117 36
1.140625 1.414062 -5.625000 89 119 31
1.156250 1.414062 -5.625000 88 117 27
1.171875 1.414062 -5.625000 86 120 23
1.187500 1.414062 -5.625000 85 123 30
1.203125 1.414062 -5.625000 86 123 35
1.218750 1.414062 -5.625000 80 119 35
1.234375 1.414062 -5.625000 83 121 38
1.250000 1.414062 -5.625000 92 123 38
1.265625 1.414062 -5.625000 82 110 24
1.312500 1.414062 -5.625000 90 119 31
1.328125 1.414062 -5.625000 109 120 40
1.343750 1.414062 -5.625000 159 149 89
1.359375 1.414062 -5.625000 169 146 105
1.375000 1.414062 -5.625000 165 147 98
1.390625 1.414062 -5.625000 166 153 98
1.406250 1.414062 -5.625000 170 149 107
1.421875 1.414062 -5.625000 177 153 113
1.437500 1.414062 -5.625000 174 155 108
1.453125 1.414062 -5.625000 171 152 107
1.468750 1.414062 -5.625000 170 146 105
1.484375 1.414062 -5.625000 166 148 98
1.546875 1.414062 -5.625000 167 151 101
1.562500 1.414062 -5.625000 166 152 102
1.516820 1.107034 -4.403670 188 162 136
1.524390 1.103659 -4.390244 195 167 142
1.533080 1.101141 -4.380228 201 177 142
1.965170 1.327223 -5.279560 196 168 130
1.976212 1.324794 -5.269899 189 166 132
1.379835 0.918199 -3.652505 190 168 134
1.389100 0.917617 -3.650190 188 164 132
1.397468 0.916456 -3.645570 188 163 132
1.996409 1.299820 -5.170557 188 169 130
2.025316 1.309222 -5.207957 188 170 126
2.039783 1.309222 -5.207957 193 169 133
1.883721 1.052326 -4.186047 161 148 96
1.892598 1.050798 -4.179971 166 152 100
1.909752 1.053857 -4.192140 171 152 101
1.918605 1.052326 -4.186047 171 149 107
1.930233 1.052326 -4.186047 167 152 98
1.934830 1.048516 -4.170891 166 150 92
1.942196 1.046243 -4.161849 161 139 82
1.958001 1.048516 -4.170891 165 139 97
2.630975 1.384321 -5.506692 138 118 76
2.591760 1.355805 -5.393259 135 122 72
2.568266 1.335793 -5.313653 140 122 76
2.573529 1.330882 -5.294117 133 115 72
2.583486 1.328440 -5.284404 122 108 57
2.598165 1.328440 -5.284404 110 86 50
2.612844 1.328440 -5.284404 99 67 28
2.629936 1.329660 -5.289256 143 121 57
2.644628 1.329660 -5.289256 193 173 113
2.659321 1.329660 -5.289256 184 166 127
2.676471 1.330882 -5.294117 178 164 123
2.681319 1.326007 -5.274725 180 163 124
2.669084 1.312783 -5.222122 173 146 115
1.853475 0.906700 -3.606763 152 125 82
1.865831 0.907837 -3.611285 172 149 87
1.877039 0.908406 -3.613551 177 158 98
1.887076 0.908406 -3.613551 182 165 118
2.756609 1.319964 -5.250684 182 165 117
2.783883 1.326007 -5.274725 179 163 112
2.798535 1.326007 -5.274725 182 167 123
2.808044 1.323583 -5.265082 182 170 129
2.817518 1.321168 -5.255475 185 166 132
2.821818 1.316364 -5.236363 188 170 130
2.836364 1.316364 -5.236363 185 169 126
2.850909 1.316364 -5.236363 181 166 124
2.860254 1.313975 -5.226860 183 169 123
2.872167 1.312783 -5.222122 191 172 125
2.886673 1.312783 -5.222122 195 175 135
2.903811 1.313975 -5.226860 188 169 132
2.934307 1.321168 -5.255475 191 171 124
2.946217 1.319964 -5.250684 181 176 128
2.952727 1.316364 -5.236363 153 170 111
2.959202 1.312783 -5.222122 128 154 80
2.954955 1.304505 -5.189189 53 75 25
3.276923 1.392308 -5.538462 125 159 60
2.772470 1.172470 -4.663968 132 163 57
3.295019 1.386973 -5.517241 130 165 60
3.250231 1.337027 -5.318560 160 149 97
3.244037 1.328440 -5.284404 155 132 96
3.258716 1.328440 -5.284404 145 126 86
3.276400 1.329660 -5.289256 130 109 64
3.291093 1.329660 -5.289256 109 80 42
-2.231866 0.887787 -3.570986 109 170 87
-2.761171 1.103236 -4.437596 108 170 79
-2.750964 1.104086 -4.441018 106 165 90
-2.738628 1.104086 -4.441018 103 165 95
-2.726291 1.104086 -4.441018 94 155 72
-2.716049 1.104938 -4.444445 92 149 69
-2.695385 1.101538 -4.430769 93 153 73
-2.477273 1.017045 -4.090909 87 142 58
-2.446794 1.009161 -4.059196 98 143 57
-2.426966 1.005618 -4.044944 136 181 82
-2.408964 1.002801 -4.033614 134 184 68
-2.397759 1.002801 -4.033614 153 194 73
-2.386555 1.002801 -4.033614 151 177 66
-2.295038 0.973487 -3.915704 120 166 82
-2.232558 0.951495 -3.827243 114 166 88
-2.205805 0.944591 -3.799472 122 171 80
-2.190915 0.942725 -3.791968 102 151 53
-2.176084 0.940867 -3.784494 87 141 60
-2.184228 0.948973 -3.817097 94 150 79
-2.173625 0.948973 -3.817097 92 143 64
-2.129158 0.934116 -3.757339 89 134 55
-2.022416 0.891656 -3.586550 95 134 65
-2.014963 0.892768 -3.591022 119 142 84
-2.703125 1.398438 -5.625000 122 170 144
-2.646154 1.376923 -5.538462 114 169 137
-2.590909 1.356061 -5.454545 108 166 131
-2.542056 1.338318 -5.383178 118 170 137
-2.524743 1.337068 -5.378151 123 178 136
-2.479705 1.321033 -5.313653 119 176 136
-2.058319 1.228130 -4.939966 133 186 68
-2.042845 1.227078 -4.935733 133 186 71
-2.008482 1.214589 -4.885496 135 189 74
-1.422895 1.354778 -5.449385 84 137 67
-1.351499 1.300636 -5.231607 91 142 85
-1.333333 1.297101 -5.217391 93 133 89
-1.318841 1.297101 -5.217391 85 129 81
-1.300813 1.293586 -5.203252 85 126 82
-1.286360 1.293586 -5.203252 95 144 62
-0.777643 0.869988 -3.499393 118 173 134
-0.765597 0.867353 -3.488795 108 159 116
-0.866667 0.994444 -4.000000 93 136 99
-0.506730 1.133808 -4.560570 111 163 87
-0.493671 1.132911 -4.556962 108 143 77
-0.481013 1.132911 -4.556962 102 120 66
-0.468354 1.132911 -4.556962 140 167 84
-0.455696 1.132911 -4.556962 100 143 66
-0.441989 1.130229 -4.546172 77 121 58
-0.428009 1.126672 -4.531865 74 123 59
-0.414443 1.124019 -4.521193 79 125 69
-0.399376 1.117005 -4.492980 80 124 68
-0.448463 1.294756 -5.207957 82 123 62
-0.402154 1.285458 -5.170557 106 152 46
-0.384000 1.272889 -5.120000 124 158 53
-0.327925 1.222886 -4.918873 175 190 90
-0.270787 1.053716 -4.238410 176 191 100
-0.258254 1.050624 -4.225972 182 196 110
-0.247059 1.052941 -4.235294 162 182 90
0.310000 0.895000 -3.600000 117 142 58
0.319600 0.893883 -3.595506 106 145 43
0.328563 0.891101 -3.584319 101 138 41
0.339364 0.893325 -3.593263 100 141 34
0.351759 0.899498 -3.618090 112 145 35
0.486524 0.989634 -3.980650 164 144 103
0.498960 0.992377 -3.991684 165 146 98
0.718750 1.398438 -5.625000 165 146 96
0.734375 1.398438 -5.625000 166 153 100
1.078125 1.398438 -5.625000 87 119 27
1.093750 1.398438 -5.625000 87 117 29
1.109375 1.398438 -5.625000 81 116 35
1.125000 1.398438 -5.625000 81 117 29
1.140625 1.398438 -5.625000 88 118 34
1.156250 1.398438 -5.625000 89 118 34
1.171875 1.398438 -5.625000 84 121 27
1.187500 1.398438 -5.625000 82 124 36
1.203125 1.398438 -5.625000 87 123 36
1.218750 1.398438 -5.625000 82 115 31
1.234375 1.398438 -5.625000 87 117 33
1.250000 1.398438 -5.625000 104 126 46
1.265625 1.398438 -5.625000 83 104 32
1.328125 1.398438 -5.625000 87 121 29
1.343750 1.398438 -5.625000 121 125 49
1.359375 1.398438 -5.625000 166 142 97
1.375000 1.398438 -5.625000 166 146 99
1.390625 1.398438 -5.625000 166 150 106
1.406250 1.398438 -5.625000 170 150 109
1.421875 1.398438 -5.625000 172 151 107
1.437500 1.398438 -5.625000 176 155 114
1.453125 1.398438 -5.625000 171 154 112
1.468750 1.398438 -5.625000 165 149 102
1.484375 1.398438 -5.625000 165 147 101
1.500000 1.398438 -5.625000 167 147 104
1.515625 1.398438 -5.625000 164 149 104
1.531250 1.398438 -5.625000 169 148 107
1.546875 1.398438 -5.625000 172 148 111
1.562500 1.398438 -5.625000 168 152 102
1.503852 1.103236 -4.437596 192 169 144
1.504587 1.094801 -4.403670 189 168 143
1.514504 1.093130 -4.396946 199 179 149
1.524390 1.091463 -4.390244 198 173 144
1.533080 1.088973 -4.380228 125 118 70
1.548780 1.091463 -4.390244 55 74 18
1.878899 1.313761 -5.284404 65 90 27
1.910009 1.314968 -5.289256 85 121 54
1.926471 1.316176 -5.294117 70 96 39
1.941176 1.316176 -5.294117 68 81 20
1.955882 1.316176 -5.294117 124 116 49
1.970588 1.316176 -5.294117 193 173 116
1.981651 1.313761 -5.284404 192 169 133
1.994501 1.312557 -5.279560 192 168 136
1.389100 0.907478 -3.650190 187 168 133
1.397468 0.906329 -3.645570 183 162 124
1.994619 1.284305 -5.165919 188 166 123
2.008969 1.284305 -5.165919 190 172 127
2.023318 1.284305 -5.165919 186 170 136
1.928571 1.065476 -4.285714 170 152 105
1.892598 1.039187 -4.179971 171 152 104
1.909752 1.042212 -4.192140 168 151 102
1.918605 1.040698 -4.186047 167 150 107
1.930233 1.040698 -4.186047 166 147 105
1.939042 1.039187 -4.179971 164 142 99
1.946416 1.036930 -4.170891 162 141 92
1.958001 1.036930 -4.170891 163 140 96
2.575393 1.324699 -5.328400 140 122 77
2.573529 1.316176 -5.294117 135 115 77
2.583486 1.313761 -5.284404 130 116 62
2.598165 1.313761 -5.284404 133 114 56
2.610449 1.312557 -5.279560 120 89 50
2.627523 1.313761 -5.284404 108 75 29
2.644628 1.314968 -5.289256 162 136 65
2.661765 1.316176 -5.294117 191 173 116
2.676471 1.316176 -5.294117 182 167 122
2.681319 1.311355 -5.274725 184 164 125
1.850409 0.900063 -3.620365 181 152 120
1.853475 0.896681 -3.606763 153 118 71
1.865831 0.897806 -3.611285 143 117 55
1.877039 0.898369 -3.613551 175 161 106
1.887076 0.898369 -3.613551 179 161 109
1.898305 0.898933 -3.615819 182 166 112
2.783883 1.311355 -5.274725 180 164 115
2.803670 1.313761 -5.284404 182 163 122
2.820937 1.314968 -5.289256 185 171 127
2.827839 1.311355 -5.274725 186 167 127
2.845096 1.312557 -5.279560 185 165 125
2.859762 1.312557 -5.279560 185 169 122
2.856102 1.304189 -5.245902 183 166 124
2.862852 1.300636 -5.231607 185 167 124
2.874773 1.299456 -5.226860 190 172 130
2.886673 1.298277 -5.222122 190 171 133
2.901179 1.298277 -5.222122 188 171 129
2.920981 1.300636 -5.231607 183 166 122
2.943534 1.304189 -5.245902 192 172 127
2.960802 1.305378 -5.250684 186 183 130
2.989011 1.311355 -5.274725 123 136 81
3.255545 1.380906 -5.554484 142 169 77
3.267823 1.379576 -5.549133 128 162 68
3.276923 1.376923 -5.538462 126 161 59
2.772470 1.159514 -4.663968 133 164 70
3.295019 1.371647 -5.517241 132 166 72
3.310345 1.371647 -5.517241 125 163 69
3.328859 1.372963 -5.522531 131 159 77
3.305164 1.344601 -5.408451 161 139 97
3.268022 1.323475 -5.323475 148 132 92
3.279778 1.322253 -5.318560 135 121 75
3.312906 1.329619 -5.348189 128 114 59
3.337058 1.333333 -5.363129 120 97 58
-2.233251 0.878412 -3.573201 107 167 84
-2.761171 1.090909 -4.437596 105 165 82
-2.750964 1.091750 -4.441018 102 166 83
-2.744977 1.094281 -4.451314 102 164 81
-2.728395 1.092593 -4.444445 97 157 68
-2.716049 1.092593 -4.444445 93 152 69
-2.697460 1.090069 -4.434180 89 151 76
-2.678956 1.087558 -4.423963 75 129 40
-2.446794 0.997886 -4.059196 108 156 52
-2.426966 0.994382 -4.044944 135 188 72
-2.408964 0.991597 -4.033614 138 190 81
-2.206529 0.943371 -3.837442 116 155 65
-2.195869 0.943371 -3.837442 87 119 51
-2.703125 1.382812 -5.625000 110 156 120
-2.653809 1.365477 -5.554484 110 156 118
-2.630769 1.361538 -5.538462 114 162 127
-2.575758 1.340909 -5.454545 105 157 120
-2.524743 1.322129 -5.378151 101 154 111
-2.479705 1.306273 -5.313653 102 157 112
-2.522244 1.369439 -5.570600 119 177 129
-2.506770 1.369439 -5.570600 122 174 132
-2.476923 1.361538 -5.538462 120 177 125
-2.060086 1.215451 -4.944206 129 185 77
-2.022053 1.201018 -4.885496 123 187 80
-2.008482 1.201018 -4.885496 132 189 72
-1.983137 1.193929 -4.856661 134 190 59
-1.439394 1.340909 -5.454545 84 139 70
-1.422895 1.339640 -5.449385 74 131 62
-1.405099 1.337111 -5.439094 106 151 96
-1.321364 1.271095 -5.170557 148 173 136
-1.250219 1.243196 -5.057067 79 123 61
-1.236172 1.243196 -5.057067 129 178 66
-0.773881 0.856106 -3.482467 104 158 95
-0.764208 0.856106 -3.482467 116 175 116
-0.630631 0.797297 -3.243243 123 116 77
-0.644483 0.826620 -3.362522 114 114 81
-0.659394 0.858182 -3.490909 105 119 93
-0.649697 0.858182 -3.490909 120 141 106
-0.507534 1.122918 -4.567803 106 161 85
-0.494062 1.121140 -4.560570 83 131 74
-0.481013 1.120253 -4.556962 104 153 80
-0.467984 1.119368 -4.553360 152 193 84
-0.454617 1.117601 -4.546172 151 189 78
-0.441292 1.115839 -4.539007 128 173 85
-0.427002 1.111460 -4.521193 99 141 59
-0.411856 1.104524 -4.492980 78 117 47
-0.398444 1.101946 -4.482490 81 123 56
-0.385692 1.101089 -4.479005 81 126 57
-0.337604 1.067069 -4.340618 95 141 56
-0.323111 1.059088 -4.308153 107 151 54
-0.309754 1.054356 -4.288906 114 157 64
-0.296296 1.048889 -4.266667 115 151 50
-0.282977 1.043478 -4.244658 126 155 60
-0.271186 1.043478 -4.244658 140 164 79
-0.258824 1.041176 -4.235294 130 155 71
-0.248705 1.048113 -4.263508 119 148 59
0.318606 0.881145 -3.584319 104 140 57
0.327747 0.878957 -3.575419 100 142 47
0.337888 0.879503 -3.577640 98 142 36
0.348910 0.882243 -3.588785 105 137 40
0.362036 0.890006 -3.620365 127 143 66
0.703125 1.382812 -5.625000 165 146 104
0.718750 1.382812 -5.625000 168 152 100
0.734375 1.382812 -5.625000 167 150 91
0.750000 1.382812 -5.625000 167 150 94
0.765625 1.382812 -5.625000 167 149 102
0.781250 1.382812 -5.625000 168 152 99
0.796875 1.382812 -5.625000 168 150 103
0.798464 1.358925 -5.527831 170 149 110
0.874401 1.357622 -5.522531 170 153 103
0.888889 1.356322 -5.517241 171 150 104
0.893939 1.340909 -5.454545 172 151 110
0.903104 1.332079 -5.418626 168 149 108
0.970616 1.342180 -5.459716 88 100 45
0.988593 1.346008 -5.475285 71 112 27
1.002849 1.344729 -5.470086 73 103 26
1.019011 1.346008 -5.475285 71 97 33
1.062500 1.382812 -5.625000 87 121 36
1.078125 1.382812 -5.625000 92 124 24
1.093750 1.382812 -5.625000 87 120 26
1.109375 1.382812 -5.625000 84 117 30
1.125000 1.382812 -5.625000 86 120 33
1.140625 1.382812 -5.625000 87 123 32
1.156250 1.382812 -5.625000 88 121 29
1.171875 1.382812 -5.625000 85 119 36
1.187500 1.382812 -5.625000 82 120 41
1.203125 1.382812 -5.625000 87 121 34
1.218750 1.382812 -5.625000 78 114 27
1.234375 1.382812 -5.625000 91 121 37
1.250000 1.382812 -5.625000 110 128 52
1.265625 1.382812 -5.625000 81 98 32
1.328125 1.382812 -5.625000 77 120 22
1.343750 1.382812 -5.625000 82 110 26
1.359375 1.382812 -5.625000 134 127 58
1.375000 1.382812 -5.625000 169 149 93
1.390625 1.382812 -5.625000 168 150 101
1.406250 1.382812 -5.625000 174 150 100
1.421875 1.382812 -5.625000 171 151 104
1.437500 1.382812 -5.625000 173 151 115
1.453125 1.382812 -5.625000 175 151 114
1.468750 1.382812 -5.625000 169 148 108
1.484375 1.382812 -5.625000 166 149 106
1.500000 1.382812 -5.625000 168 148 105
1.515625 1.382812 -5.625000 166 147 103
1.531250 1.382812 -5.625000 169 146 109
1.546875 1.382812 -5.625000 172 147 107
1.562500 1.382812 -5.625000 167 151 98
1.578125 1.382812 -5.625000 165 151 98
1.499232 1.087558 -4.423963 194 167 141
1.510361 1.086723 -4.420568 211 184 157
1.516820 1.082569 -4.403670 184 163 125
1.526718 1.080916 -4.396946 98 104 41
1.537757 1.080091 -4.393593 63 100 16
1.588741 1.107115 -4.503519 65 109 27
1.878899 1.299083 -5.284404 65 92 29
1.902304 1.305069 -5.308756 70 91 34
1.910009 1.300275 -5.289256 73 103 36
1.926471 1.301471 -5.294117 100 129 55
1.941176 1.301471 -5.294117 113 135 67
1.955882 1.301471 -5.294117 104 114 53
1.970588 1.301471 -5.294117 142 137 74
1.985294 1.301471 -5.294117 191 176 126
2.000000 1.301471 -5.294117 187 170 129
2.014706 1.301471 -5.294117 192 171 134
2.112919 1.355024 -5.511962 191 166 134
2.120114 1.349857 -5.490944 185 164 127
2.008969 1.269955 -5.165919 184 168 128
2.021505 1.268817 -5.161290 192 169 138
2.035842 1.268817 -5.161290 191 167 140
2.003072 1.087558 -4.423963 172 149 106
2.015361 1.087558 -4.423963 171 148 111
1.921397 1.030568 -4.192140 164 146 110
1.930233 1.029070 -4.186047 163 141 112
1.939042 1.027576 -4.179971 164 142 100
1.950653 1.027576 -4.179971 158 143 90
2.625115 1.297892 -5.279560 111 85 40
2.642202 1.299083 -5.284404 110 81 22
2.659321 1.300275 -5.289256 175 153 79
2.676471 1.301471 -5.294117 190 173 118
2.691176 1.301471 -5.294117 180 160 117
1.852738 0.891127 -3.624921 174 151 102
1.861635 0.890566 -3.622642 152 125 69
1.874055 0.891688 -3.627204 146 119 65
1.884131 0.891688 -3.627204 156 138 84
1.890635 0.890006 -3.620365 179 162 113
1.906683 0.892812 -3.631778 183 165 116
2.783883 1.296703 -5.274725 185 166 121
2.806244 1.300275 -5.289256 184 161 119
2.820937 1.300275 -5.289256 185 162 121
2.835629 1.300275 -5.289256 186 168 121
2.860830 1.305069 -5.308756 183 166 118
2.870674 1.289618 -5.245902 186 168 128
2.877384 1.286103 -5.231607 187 167 132
2.886673 1.283772 -5.222122 189 169 131
2.901179 1.283772 -5.222122 189 171 130
2.920981 1.286103 -5.231607 192 171 134
2.943534 1.289618 -5.245902 190 164 127
2.982553 1.300275 -5.289256 202 181 136
3.036279 1.317209 -5.358140 136 130 100
3.051163 1.317209 -5.358140 43 53 21
3.252409 1.364162 -5.549133 146 168 71
3.277295 1.368116 -5.565217 139 165 65
3.292754 1.368116 -5.565217 129 162 54
3.308213 1.368116 -5.565217 132 163 62
3.314065 1.364162 -5.549133 132 159 69
3.310345 1.356322 -5.517241 144 161 76
3.294118 1.343454 -5.464896 173 164 109
3.306161 1.342180 -5.459716 179 155 110
3.299435 1.333333 -5.423729 161 143 97
3.317625 1.334590 -5.428841 154 138 88
3.332705 1.334590 -5.428841 140 126 75
3.347785 1.334590 -5.428841 133 120 63
3.372401 1.338374 -5.444234 132 114 65
3.387524 1.338374 -5.444234 127 108 67
-2.233251 0.868486 -3.573201 108 170 87
-2.686657 1.049475 -4.317841 106 168 87
-2.750964 1.079414 -4.441018 108 169 82
-2.744977 1.081917 -4.451314 106 169 77
-2.730502 1.081081 -4.447876 98 158 74
-2.716049 1.080247 -4.444445 93 147 78
-2.697460 1.077752 -4.434180 84 138 68
-2.658937 1.352657 -5.565217 89 78 80
-2.635838 1.348748 -5.549133 98 98 95
-2.542056 1.308411 -5.383178 98 106 92
-2.494465 1.291513 -5.313653 93 113 84
-2.445860 1.273885 -5.241128 85 120 87
-2.431301 1.273885 -5.241128 89 124 90
-2.562500 1.367188 -5.625000 81 121 72
-2.522244 1.353965 -5.570600 85 129 71
-2.504348 1.352657 -5.565217 94 135 83
-2.476923 1.346154 -5.538462 84 126 82
-2.046352 1.201717 -4.944206 125 184 71
-2.008482 1.187447 -4.885496 130 186 72
-1.983137 1.180438 -4.856661 137 193 75
-1.072886 1.020408 -4.198251 142 170 129
-1.277193 1.228070 -5.052631 106 139 95
-1.264267 1.229148 -5.057067 114 150 107
-1.249123 1.228070 -5.052631 71 117 54
-1.235088 1.228070 -5.052631 120 174 57
-1.211488 1.218451 -5.013055 123 179 60
-0.773414 0.845921 -3.480363 108 148 67
-0.763746 0.845921 -3.480363 109 152 82
-0.639640 0.788288 -3.243243 97 130 101
-0.630631 0.788288 -3.243243 98 142 108
-0.621622 0.788288 -3.243243 113 157 122
-0.630725 0.811594 -3.339130 126 168 138
-0.621449 0.811594 -3.339130 109 147 115
-0.575342 0.799087 -3.287671 207 200 206
-0.573946 0.881057 -3.624921 210 201 205
-0.558255 0.872274 -3.588785 210 202 208
-0.560976 1.067073 -4.390244 94 130 85
-0.548781 1.067073 -4.390244 57 85 25
-0.548415 1.199657 -4.935733 111 161 88
-0.494845 1.110230 -4.567803 80 145 73
-0.481394 1.108472 -4.560570 102 177 88
-0.468354 1.107595 -4.556962 130 183 79
-0.455336 1.106719 -4.553360 166 198 91
-0.441640 1.104101 -4.542587 164 194 97
-0.428009 1.101495 -4.531865 155 188 88
-0.413469 1.096320 -4.510571 116 153 61
-0.399376 1.092044 -4.492980 84 116 41
-0.349661 1.055011 -4.340618 80 141 57
-0.335079 1.047120 -4.308153 88 146 52
-0.321668 1.042442 -4.288906 101 158 62
-0.307692 1.035503 -4.260355 108 171 81
-0.294334 1.030169 -4.238410 120 180 74
-0.282561 1.030169 -4.238410 124 180 60
-0.271186 1.031687 -4.244658 120 176 61
-0.258824 1.029412 -4.235294 123 178 60
-0.247059 1.029412 -4.235294 135 185 70
-0.277537 1.214224 -4.995664 141 186 82
0.327138 0.867410 -3.568773 94 140 42
0.336634 0.866337 -3.564356 95 137 33
0.347610 0.869025 -3.575419 106 137 37
0.359551 0.873908 -3.595506 128 146 56
0.400812 0.947867 -3.899797 147 137 77
0.718750 1.367188 -5.625000 164 148 101
0.734375 1.367188 -5.625000 168 150 97
0.796875 1.367188 -5.625000 171 153 103
0.801541 1.348748 -5.549133 169 149 103
0.859060 1.342282 -5.522531 169 150 97
0.872727 1.339713 -5.511962 170 149 100
0.885496 1.335878 -5.496183 171 148 104
0.893939 1.325758 -5.454545 170 150 108
0.903104 1.317027 -5.418626 168 152 108
0.872987 1.252236 -5.152057 167 146 107
0.927970 1.309635 -5.388213 165 148 96
0.969231 1.346154 -5.538462 157 143 94
0.970616 1.327014 -5.459716 115 121 64
0.988593 1.330799 -5.475285 89 119 51
1.003802 1.330799 -5.475285 70 96 23
1.029779 1.344861 -5.533141 82 111 30
1.062500 1.367188 -5.625000 92 126 36
1.078125 1.367188 -5.625000 91 122 20
1.093750 1.367188 -5.625000 89 121 23
1.109375 1.367188 -5.625000 85 117 27
1.125000 1.367188 -5.625000 85 119 30
1.129594 1.353965 -5.570600 86 123 24
1.143961 1.352657 -5.565217 87 121 32
1.159420 1.352657 -5.565217 87 120 39
1.187500 1.367188 -5.625000 87 122 40
1.203125 1.367188 -5.625000 87 121 33
1.218750 1.367188 -5.625000 75 116 23
1.234375 1.367188 -5.625000 94 123 40
1.250000 1.367188 -5.625000 110 127 50
1.265625 1.367188 -5.625000 84 104 34
1.343750 1.367188 -5.625000 77 117 22
1.359375 1.367188 -5.625000 95 114 34
1.375000 1.367188 -5.625000 144 131 74
1.390625 1.367188 -5.625000 173 151 94
1.406250 1.367188 -5.625000 169 149 96
1.421875 1.367188 -5.625000 168 147 111
1.437500 1.367188 -5.625000 167 148 111
1.453125 1.367188 -5.625000 174 151 106
1.468750 1.367188 -5.625000 174 152 109
1.484375 1.367188 -5.625000 169 153 103
1.500000 1.367188 -5.625000 167 151 96
1.515625 1.367188 -5.625000 166 144 103
1.531250 1.367188 -5.625000 168 148 107
1.546875 1.367188 -5.625000 166 149 106
1.578125 1.367188 -5.625000 162 145 99
1.503852 1.078582 -4.437596 207 185 150
1.511521 1.075269 -4.423963 163 144 105
1.522640 1.074444 -4.420568 75 86 25
1.534919 1.074444 -4.420568 60 98 23
1.576231 1.094605 -4.503519 68 116 36
1.611420 1.110230 -4.567803 70 116 34
1.887558 1.290323 -5.308756 69 105 34
1.912882 1.297498 -5.338276 65 97 40
1.917051 1.290323 -5.308756 65 93 34
1.931797 1.290323 -5.308756 77 104 46
1.942962 1.287948 -5.298988 115 143 74
1.957682 1.287948 -5.298988 125 148 89
1.972401 1.287948 -5.298988 108 115 58
1.985294 1.286765 -5.294117 158 150 78
2.000000 1.286765 -5.294117 193 179 121
2.097608 1.339713 -5.511962 191 169 126
2.023318 1.255605 -5.165919 191 166 128
2.037668 1.255605 -5.165919 190 170 136
2.032135 1.071155 -4.407039 163 145 106
1.941860 1.017442 -4.186047 163 144 103
2.644628 1.285583 -5.289256 104 73 37
2.659321 1.285583 -5.289256 118 95 29
2.676471 1.286765 -5.294117 180 166 88
2.691176 1.286765 -5.294117 181 162 110
1.857413 0.883281 -3.634069 172 148 100
1.867508 0.883281 -3.634069 153 128 76
1.877603 0.883281 -3.634069 150 121 66
1.887697 0.883281 -3.634069 136 109 49
1.896595 0.882724 -3.631778 159 139 74
2.774312 1.284404 -5.284404 186 169 116
2.791552 1.285583 -5.289256 182 165 111
2.808824 1.286765 -5.294117 185 166 114
2.823529 1.286765 -5.294117 180 161 113
2.851339 1.292705 -5.318560 181 165 118
2.863469 1.291513 -5.313653 187 169 125
2.880886 1.292705 -5.318560 185 167 131
2.877384 1.271571 -5.231607 186 167 127
2.886673 1.269266 -5.222122 185 166 127
2.903811 1.270417 -5.226860 190 172 131
2.926297 1.273885 -5.241128 189 170 131
2.959707 1.282051 -5.274725 191 167 128
3.021395 1.302326 -5.358140 197 171 119
3.044776 1.305970 -5.373134 188 168 126
3.062558 1.307190 -5.378151 88 83 72
3.281250 1.367188 -5.625000 144 166 82
3.258687 1.351351 -5.559845 144 167 76
3.312500 1.367188 -5.625000 144 168 66
3.328125 1.367188 -5.625000 129 162 62
3.343750 1.367188 -5.625000 125 160 55
3.359375 1.367188 -5.625000 153 167 82
3.332690 1.350048 -5.554484 175 163 101
3.328859 1.342282 -5.522531 177 156 106
3.309298 1.328273 -5.464896 166 149 101
3.421875 1.367188 -5.625000 160 143 91
3.437500 1.367188 -5.625000 150 127 80
3.400000 1.346154 -5.538462 141 124 60
3.405561 1.342282 -5.522531 134 121 63
3.420901 1.342282 -5.522531 136 118 66
3.436242 1.342282 -5.522531 133 112 70
-2.234637 0.859094 -3.575419 95 150 73
-2.678625 1.034380 -4.304933 103 162 79
-2.722351 1.070379 -4.454756 84 123 64
-2.638380 1.334619 -5.554484 128 42 98
-2.328767 1.184932 -4.931507 129 56 99
-2.291525 1.172881 -4.881356 123 53 89
-2.240000 1.153333 -4.800000 112 66 87
-2.197368 1.138158 -4.736842 110 100 83
-2.178835 1.135357 -4.725184 107 125 87
-2.578125 1.351562 -5.625000 103 136 92
-2.562500 1.351562 -5.625000 96 137 89
-2.519807 1.337198 -5.565217 96 141 81
-2.492308 1.330769 -5.538462 91 143 77
-2.469799 1.326941 -5.522531 93 148 79
-2.008540 1.181896 -4.918873 119 173 69
-1.373134 1.291045 -5.373134 124 163 111
-1.358209 1.291045 -5.373134 128 156 112
-1.343284 1.291045 -5.373134 123 151 107
-1.250219 1.215101 -5.057067 74 116 40
-1.236172 1.215101 -5.057067 114 166 50
-1.294884 1.287442 -5.358140 128 183 62
-0.639640 0.779279 -3.243243 105 162 122
-0.630631 0.779279 -3.243243 107 168 122
-0.621622 0.779279 -3.243243 116 168 126
-0.622782 0.792215 -3.297081 120 164 130
-0.615032 0.794033 -3.304647 119 144 130
-0.605852 0.794033 -3.304647 198 193 198
-0.596672 0.794033 -3.304647 217 207 212
-0.584475 0.789954 -3.287671 208 202 211
-0.574032 0.788155 -3.280182 208 204 214
-0.566210 0.789954 -3.287671 209 203 211
-0.578193 0.862305 -3.588785 210 209 209
-0.567870 0.861768 -3.586550 218 212 208
-0.557908 0.861768 -3.586550 216 212 200
-0.573171 1.054878 -4.390244 165 211 158
-0.560548 1.054075 -4.386900 96 136 77
-0.548363 1.054075 -4.386900 61 87 23
-0.535769 1.053272 -4.383562 107 141 81
-0.551724 1.223696 -5.092838 92 159 75
-0.540925 1.231317 -5.124555 93 175 79
-0.526690 1.231317 -5.124555 115 178 77
-0.512912 1.232413 -5.129118 165 196 85
-0.499109 1.233512 -5.133690 172 192 80
-0.484848 1.233512 -5.133690 166 193 80
-0.468500 1.228039 -5.110914 168 200 92
-0.454303 1.228039 -5.110914 145 174 77
-0.438550 1.223696 -5.092838 110 141 60
-0.362538 1.045317 -4.350453 93 134 59
-0.348872 1.040601 -4.330827 97 145 61
-0.334578 1.033607 -4.301718 102 154 63
-0.321429 1.029762 -4.285714 91 153 64
-0.307692 1.023669 -4.260355 91 152 67
-0.295203 1.021402 -4.250923 104 162 58
-0.286567 1.032836 -4.298508 120 182 58
-0.262687 1.032836 -4.298508 125 179 58
0.326733 0.856436 -3.564356 90 137 27
0.336634 0.856436 -3.564356 90 131 35
0.346320 0.855906 -3.562152 97 133 35
0.357542 0.859094 -3.575419 126 144 60
0.369538 0.863920 -3.595506 153 139 93
0.411645 0.937035 -3.899797 155 132 97
0.421907 0.935767 -3.894523 136 116 78
0.434783 0.940217 -3.913043 104 83 49
0.783109 1.328215 -5.527831 166 153 96
0.798464 1.328215 -5.527831 166 150 98
0.846154 1.330769 -5.538462 163 146 99
0.858238 1.325670 -5.517241 165 142 104
0.873563 1.325670 -5.517241 169 145 93
0.968750 1.351562 -5.625000 170 152 104
0.984375 1.351562 -5.625000 173 154 102
0.985563 1.332050 -5.543792 169 152 113
1.000000 1.330769 -5.538462 108 114 70
1.014409 1.329491 -5.533141 62 92 25
1.034749 1.335907 -5.559845 87 126 36
1.062500 1.351562 -5.625000 97 127 31
1.078125 1.351562 -5.625000 92 123 31
1.093750 1.351562 -5.625000 88 121 35
1.109375 1.351562 -5.625000 86 118 24
1.125000 1.351562 -5.625000 85 119 27
1.129594 1.338491 -5.570600 89 120 30
1.145068 1.338491 -5.570600 87 120 32
1.171875 1.351562 -5.625000 87 120 32
1.187500 1.351562 -5.625000 90 122 30
1.203125 1.351562 -5.625000 85 120 36
1.218750 1.351562 -5.625000 77 115 25
1.234375 1.351562 -5.625000 98 126 36
1.250000 1.351562 -5.625000 103 122 45
1.291548 1.314340 -5.470086 81 114 28
1.303030 1.310606 -5.454545 81 118 24
1.318182 1.310606 -5.454545 85 121 28
1.375000 1.351562 -5.625000 103 112 36
1.390625 1.351562 -5.625000 156 138 88
1.406250 1.351562 -5.625000 170 152 112
1.421875 1.351562 -5.625000 167 147 111
